# Exported by SUIT PcdPointCloudWriter
VERSION .7
FIELDS x y z rgb intensity
SIZE 4 4 4 4 4
TYPE F F F U F
COUNT 1 1 1 1 1
WIDTH 1329
HEIGHT 1
VIEWPOINT 0.000000 0.000000 0.000000 1.000000 0.000000 0.000000 0.000000
POINTS 1329
DATA ascii
61.01525 -152.79121 613.388 0 0.43
61.18957 -162.99821 610.61725 0 0.42
61.305977 -173.09734 608.6889 0 0.42
61.34827 -183.01256 607.8425 0 0.42
61.250683 -192.50165 609.04663 0 0.42
61.362167 -202.65007 607.17596 0 0.42
61.367416 -212.46625 606.8644 0 0.42
61.44861 -222.55916 605.43604 0 0.43
61.884525 -234.01945 598.7913 0 0.47
61.771294 -243.45462 600.2244 0 0.62
61.685467 -252.96597 601.25977 0 0.66
62.538754 -266.45114 588.48047 0 0.45
65.588524 -289.9178 543.36884 0 0.44
64.973045 -297.57178 552.21564 0 0.4
63.872345 -302.72952 568.2249 0 0.34
62.934505 -308.33362 581.85626 0 0.31
61.709846 -312.1872 599.7349 0 0.3
60.121944 -313.75406 622.9902 0 0.33
58.779476 -316.13385 642.6552 0 0.37
57.046413 -315.92184 668.1036 0 0.39
55.68536 -317.27588 688.09686 0 0.4
54.535347 -319.4315 705.0066 0 0.4
53.453392 -321.62933 720.941 0 0.41
52.642033 -325.15298 732.9149 0 0.4
51.92742 -329.0306 743.4919 0 0.39
51.21577 -332.69922 754.0556 0 0.37
49.936333 -332.36157 773.01776 0 0.35
49.033676 -334.1832 786.4576 0 0.34
48.212746 -336.28662 798.7247 0 0.31
47.74731 -340.66425 805.7889 0 0.27
47.26881 -344.79794 813.0813 0 0.24
47.019657 -350.48837 817.036 0 0.2
0.0 0.0 0.0 0 0.2
0.0 0.0 0.0 0 0.31
0.0 0.0 0.0 0 0.33
0.0 0.0 0.0 0 0.33
0.0 0.0 0.0 0 0.33
0.0 0.0 0.0 0 0.33
80.59026 580.51385 490.21417 0 0.42
81.00005 572.3132 484.18127 0 0.44
81.2911 563.17706 479.7262 0 0.48
81.51379 553.49664 476.21094 0 0.5
81.231544 540.39575 479.16882 0 0.51
81.01522 527.8021 481.36658 0 0.51
80.88296 515.80414 482.56873 0 0.53
80.85317 504.48193 482.53638 0 0.52
80.96226 494.01535 480.802 0 0.51
81.10503 483.7196 478.69714 0 0.52
81.06749 472.33398 478.9369 0 0.52
81.09804 461.34607 478.36316 0 0.52
81.07138 450.03207 478.56482 0 0.53
80.914375 438.0199 480.46838 0 0.53
80.733986 425.92758 482.71143 0 0.53
80.22059 412.17395 489.22638 0 0.52
79.60751 398.06323 497.04395 0 0.51
79.18666 385.0561 502.45032 0 0.49
78.776115 372.21344 507.7547 0 0.49
78.597275 360.5468 510.14056 0 0.49
78.33762 348.56982 513.5769 0 0.49
78.460686 338.3146 512.172 0 0.5
78.56 327.92636 511.08856 0 0.5
79.12149 319.37634 504.15344 0 0.53
80.54362 314.0272 486.30933 0 0.56
81.00773 304.68317 480.64624 0 0.59
81.18426 294.16934 478.646 0 0.56
81.16498 282.92435 479.13965 0 0.56
81.13794 271.65863 479.73816 0 0.56
81.14095 260.49683 479.9602 0 0.56
81.154976 249.36807 480.0454 0 0.56
81.19905 238.32364 479.75073 0 0.56
81.177155 227.08255 480.2915 0 0.56
81.14638 215.82385 480.94238 0 0.56
81.20299 204.79405 480.4823 0 0.56
81.212 193.63513 480.62012 0 0.56
81.192314 182.40927 481.1145 0 0.57
81.163 171.16855 481.72253 0 0.56
79.76144 157.23079 499.68427 0 0.43
71.072014 130.31615 609.8213 0 0.44
69.51156 117.88426 629.7379 0 0.55
71.22371 110.98149 608.25305 0 0.52
71.52151 101.59811 604.6464 0 0.59
71.79132 92.09684 601.3821 0 0.49
71.50264 81.8817 605.1648 0 0.46
71.262924 71.79539 608.3138 0 0.44
71.05271 61.80074 611.0752 0 0.45
69.35578 50.77556 632.6058 0 0.5
65.18402 38.746574 685.38416 0 0.62
65.2571 29.805128 684.5159 0 0.63
65.22284 20.809301 684.98975 0 0.63
65.15999 11.81773 685.81 0 0.62
65.20667 2.8482475 685.23224 0 0.59
65.3629 -6.144386 683.2562 0 0.51
65.273506 -15.123135 684.3681 0 0.51
65.19503 -24.081297 685.32764 0 0.51
65.34436 -33.13336 683.3951 0 0.5
65.30744 -42.10646 683.80115 0 0.49
65.183075 -51.000977 685.29834 0 0.49
65.1879 -59.980118 685.1496 0 0.49
65.12514 -68.8891 685.8418 0 0.57
65.09322 -77.81766 686.1316 0 0.62
65.11173 -86.80466 685.7718 0 0.62
65.10223 -95.755554 685.7544 0 0.62
65.08445 -104.69054 685.83044 0 0.62
65.03904 -113.57236 686.24585 0 0.61
68.20088 -128.48383 646.0762 0 0.48
70.37066 -142.26042 618.43396 0 0.43
70.83488 -152.95174 612.35785 0 0.43
70.94016 -162.94644 610.8155 0 0.43
71.03675 -172.94897 609.3759 0 0.42
71.00911 -182.65851 609.5039 0 0.42
71.03139 -192.49577 608.9953 0 0.42
71.08419 -202.42604 608.09686 0 0.42
71.301414 -212.86176 605.1124 0 0.42
71.338295 -222.79398 604.41327 0 0.42
71.691345 -233.76738 599.7054 0 0.45
71.693665 -243.64604 599.4473 0 0.55
71.348465 -252.29648 603.6036 0 0.53
74.18733 -272.54953 567.35785 0 0.42
78.205765 -298.08014 516.1302 0 0.45
76.680016 -302.8224 535.28577 0 0.41
74.78398 -305.6313 559.165 0 0.39
73.117966 -308.88974 580.1467 0 0.38
71.08634 -310.09448 605.79755 0 0.36
69.359344 -312.11066 627.6043 0 0.33
68.76376 -318.89832 635.0593 0 0.3
68.204475 -325.69528 642.0768 0 0.31
66.107864 -324.78537 668.65936 0 0.33
64.022545 -323.3552 695.1272 0 0.37
62.02161 -321.7886 720.551 0 0.4
60.95502 -324.64737 734.12695 0 0.41
60.03755 -328.02716 745.83655 0 0.42
58.890793 -329.86996 760.49023 0 0.42
57.714447 -331.2272 775.5496 0 0.41
56.117268 -329.7873 795.9855 0 0.4
55.222443 -332.13193 807.52814 0 0.38
54.085255 -332.73907 822.1801 0 0.37
53.184135 -334.5179 833.86566 0 0.35
52.358746 -336.53537 844.6226 0 0.33
51.18924 -336.06638 859.77655 0 0.32
50.74106 -340.11017 865.8171 0 0.31
49.602394 -339.30743 880.6423 0 0.3
0.0 0.0 0.0 0 0.3
0.0 0.0 0.0 0 0.29
0.0 0.0 0.0 0 0.29
92.41461 585.10583 482.29016 0 0.41
92.62813 575.24805 479.05066 0 0.47
92.62602 564.0255 478.2898 0 0.48
92.72104 553.3832 476.52686 0 0.49
92.55758 541.2066 477.71826 0 0.49
92.43059 529.2783 478.5775 0 0.5
92.26036 517.1384 479.989 0 0.51
92.2466 505.8978 479.7218 0 0.5
92.33049 495.1843 478.42627 0 0.51
92.250336 483.59042 479.0204 0 0.51
92.24723 472.41064 478.8092 0 0.52
92.15897 460.80576 479.60095 0 0.52
92.10692 449.39893 480.0371 0 0.52
91.126785 433.58884 490.88666 0 0.51
89.88746 416.814 504.67548 0 0.48
89.481636 404.1033 509.19153 0 0.47
89.37898 392.82333 510.35553 0 0.48
89.37441 381.9873 510.45624 0 0.48
89.25966 370.6949 511.81738 0 0.48
89.55776 361.09482 508.59406 0 0.49
89.535965 350.1715 508.96838 0 0.47
89.61317 339.62863 508.2594 0 0.47
89.57812 328.65527 508.82336 0 0.47
89.727165 318.34357 507.34943 0 0.51
91.171364 312.43405 491.43738 0 0.56
92.082 304.41116 481.49817 0 0.58
92.34613 294.10883 478.78638 0 0.57
92.38811 283.06192 478.56213 0 0.56
92.378426 271.8528 478.92078 0 0.56
92.35973 260.62067 479.38452 0 0.56
92.39688 249.54384 479.229 0 0.56
92.38122 238.32181 479.66333 0 0.56
92.33392 227.02573 480.44934 0 0.56
92.32022 215.81966 480.8589 0 0.56
92.340164 204.69148 480.89026 0 0.56
92.371796 193.58298 480.78625 0 0.56
92.39294 182.44612 480.79272 0 0.56
92.27088 171.03868 482.38464 0 0.56
91.11977 157.8778 495.41284 0 0.44
81.354706 131.1131 604.2147 0 0.49
79.80363 118.955696 621.6391 0 0.61
81.19457 111.20307 606.34265 0 0.55
81.31033 101.52162 605.2128 0 0.59
81.705826 92.12758 600.9627 0 0.47
81.24361 81.77448 606.23065 0 0.45
81.127266 71.83954 607.64136 0 0.44
80.93293 61.87314 609.90405 0 0.44
79.071365 50.880936 630.6695 0 0.49
74.33001 38.834724 683.39923 0 0.61
74.34585 29.845835 683.278 0 0.62
74.28445 20.831453 684.00024 0 0.62
74.28027 11.841054 684.0728 0 0.62
74.288475 2.852141 683.9935 0 0.6
74.3315 -6.1416335 683.5133 0 0.56
74.31962 -15.134641 683.6281 0 0.53
74.20805 -24.092411 684.8355 0 0.51
74.26583 -33.09864 684.1484 0 0.51
74.15684 -42.024357 685.2992 0 0.5
74.10521 -50.963142 685.7994 0 0.49
74.13324 -59.953854 685.4011 0 0.49
74.15147 -68.94223 685.09894 0 0.56
74.02608 -77.78412 686.3797 0 0.62
74.047356 -86.767525 686.0188 0 0.63
73.99235 -95.65744 686.4944 0 0.63
74.01696 -104.64663 686.074 0 0.62
73.98787 -113.55933 686.2405 0 0.62
76.851 -127.254105 654.2328 0 0.51
80.048355 -142.23575 618.4853 0 0.43
80.48814 -152.75766 613.3944 0 0.43
80.7185 -162.96321 610.62427 0 0.42
80.80674 -172.92041 609.4287 0 0.42
80.66618 -182.38168 610.77454 0 0.42
80.73601 -192.31004 609.77423 0 0.42
80.90578 -202.50545 607.65765 0 0.42
80.93556 -212.37465 607.09845 0 0.42
81.282265 -223.12097 603.007 0 0.42
81.359215 -233.17813 601.92255 0 0.44
81.514046 -243.48651 599.97235 0 0.54
81.1224 -252.13388 604.1212 0 0.52
87.09531 -281.23816 537.2768 0 0.43
91.46291 -306.41016 488.32324 0 0.51
89.742615 -311.50742 507.30554 0 0.46
85.60436 -307.50272 553.3009 0 0.4
83.13786 -308.70386 580.66376 0 0.39
80.76595 -309.67065 606.99677 0 0.39
78.55151 -310.68622 631.5977 0 0.39
76.55647 -312.0602 653.77466 0 0.38
75.823 -318.2463 661.88544 0 0.37
75.23552 -324.88535 668.39026 0 0.34
74.523384 -330.82883 676.3142 0 0.32
74.41095 -339.33475 677.5664 0 0.32
72.44407 -339.13223 699.56635 0 0.35
71.02108 -341.06558 715.5198 0 0.38
67.870476 -334.14896 750.8009 0 0.4
66.164375 -333.75632 769.9745 0 0.41
64.79278 -334.67856 785.4418 0 0.42
63.853046 -337.55182 796.11835 0 0.42
62.677258 -338.92123 809.462 0 0.41
61.528732 -340.15674 822.53314 0 0.4
60.128292 -339.69113 838.44476 0 0.39
58.181377 -335.73312 860.4757 0 0.38
56.861702 -334.99924 875.5411 0 0.37
55.92564 -336.2525 886.3638 0 0.35
54.81947 -336.2358 899.11127 0 0.34
54.073063 -338.20142 907.88947 0 0.33
53.254078 -339.52374 917.50903 0 0.31
103.77248 586.07166 480.7489 0 0.44
103.90161 575.5847 478.58997 0 0.47
103.920334 564.4702 477.6078 0 0.48
103.827065 552.75543 477.81738 0 0.48
103.753265 541.16235 477.91077 0 0.49
103.76577 530.02606 477.21948 0 0.49
103.52979 517.64465 479.0686 0 0.47
103.46872 506.16977 479.24475 0 0.5
103.42653 494.7985 479.2953 0 0.51
103.448425 483.73596 478.76648 0 0.51
103.37581 472.2369 479.23438 0 0.52
103.34412 460.93613 479.34668 0 0.52
103.17032 449.0237 480.9237 0 0.52
101.95614 432.73303 492.91406 0 0.52
100.08164 413.97336 511.52875 0 0.47
100.04029 403.00293 511.9146 0 0.47
100.22547 392.92953 510.0783 0 0.47
100.05612 381.4645 511.80768 0 0.47
100.08998 370.78885 511.54175 0 0.48
100.39947 361.09723 508.55695 0 0.46
100.39769 350.25284 508.6985 0 0.47
100.152016 338.58435 511.2915 0 0.47
100.348175 328.41492 509.5033 0 0.46
100.41867 317.80542 508.9843 0 0.5
101.508934 310.29794 498.3286 0 0.55
103.07702 303.96417 482.93445 0 0.58
103.46764 293.94675 479.27515 0 0.58
103.5136 282.903 479.05566 0 0.56
103.57435 271.88812 478.69666 0 0.56
103.479866 260.46945 479.88623 0 0.56
103.520546 249.39677 479.7351 0 0.56
103.575226 238.34755 479.4463 0 0.56
103.61938 227.2634 479.2622 0 0.56
103.6036 216.04475 479.67163 0 0.56
103.600945 204.85545 479.9474 0 0.56
103.488174 193.4609 481.31152 0 0.56
103.58514 182.46013 480.5868 0 0.56
103.546814 171.21474 481.19775 0 0.56
101.83634 157.3932 498.39215 0 0.46
91.595436 131.67763 600.1985 0 0.49
89.56054 119.084175 620.56 0 0.6
91.14273 111.34906 605.03253 0 0.54
91.27217 101.654335 603.904 0 0.57
91.56508 92.0961 601.14307 0 0.47
91.14715 81.83639 605.4164 0 0.45
91.11676 71.973015 605.8344 0 0.44
90.698746 61.85188 610.0797 0 0.44
89.31578 51.26711 623.87177 0 0.47
83.22963 38.78901 684.2469 0 0.6
83.272285 29.819628 683.87805 0 0.62
83.27872 20.831974 683.8543 0 0.62
83.14846 11.823494 685.1706 0 0.62
83.23294 2.8504896 684.3454 0 0.62
83.05513 -6.121421 686.1042 0 0.62
83.14233 -15.103082 685.2236 0 0.6
83.34379 -24.136658 683.1967 0 0.53
83.2078 -33.07958 684.49884 0 0.51
83.111 -42.012947 685.3992 0 0.5
83.128525 -50.99555 685.1531 0 0.5
83.21013 -60.02816 684.2587 0 0.5
83.155624 -68.96551 684.7004 0 0.56
82.9405 -77.74054 686.72186 0 0.62
83.089424 -86.84965 685.1227 0 0.62
83.00308 -95.71961 685.84454 0 0.62
83.03092 -104.71491 685.42365 0 0.62
82.94894 -113.56587 686.08203 0 0.62
86.0066 -127.03657 655.5811 0 0.53
89.81043 -142.35011 617.65424 0 0.43
90.15501 -152.62851 614.03894 0 0.43
90.388985 -162.78214 611.5128 0 0.42
90.46393 -172.68271 610.5587 0 0.42
90.60195 -182.72668 608.97266 0 0.42
90.435455 -192.15343 610.4076 0 0.42
90.43094 -201.90587 610.231 0 0.42
90.56308 -211.97722 608.695 0 0.42
90.80668 -222.34998 606.05054 0 0.42
91.11251 -232.93448 602.78766 0 0.44
91.26274 -243.17036 601.0746 0 0.53
90.96978 -252.20996 603.77563 0 0.5
98.4522 -283.58264 529.10406 0 0.43
102.958824 -307.67798 484.03027 0 0.54
101.8671 -315.4121 494.68762 0 0.57
100.60739 -322.37228 507.0362 0 0.48
94.29754 -312.33328 569.70435 0 0.4
90.527565 -309.61884 607.1098 0 0.39
88.00122 -310.47803 632.15497 0 0.39
85.50968 -310.91843 656.8798 0 0.39
83.80162 -313.75418 673.82446 0 0.4
82.03053 -315.97842 691.4232 0 0.4
80.54586 -318.95453 706.19446 0 0.4
79.29875 -322.5764 718.6258 0 0.38
79.715416 -332.87662 714.5051 0 0.36
81.08884 -347.36526 700.8826 0 0.34
81.09894 -356.16324 700.88025 0 0.32
78.94161 -355.21063 722.5061 0 0.32
75.844765 -349.46335 753.51886 0 0.35
72.81425 -343.36017 783.8954 0 0.38
70.862816 -341.80777 803.55286 0 0.4
69.91096 -344.76337 813.292 0 0.41
68.7189 -346.303 825.45496 0 0.41
67.378746 -346.8229 839.1231 0 0.41
66.40214 -348.96408 849.21063 0 0.41
64.65953 -346.7862 866.93866 0 0.4
62.66586 -342.85843 887.18195 0 0.39
60.862236 -339.5605 905.56006 0 0.37
59.050385 -335.82632 924.03894 0 0.36
115.13434 586.86957 479.52246 0 0.46
115.34933 576.7269 476.70618 0 0.47
115.12585 564.39294 477.89697 0 0.47
115.11897 553.1432 477.2296 0 0.48
115.036194 541.5375 477.3192 0 0.49
114.900955 529.7061 477.95325 0 0.49
114.737076 517.7717 478.9148 0 0.47
114.69301 506.39838 478.86707 0 0.5
114.670074 495.12488 478.69226 0 0.51
114.66819 483.9446 478.3872 0 0.51
114.58659 472.4361 478.85413 0 0.52
114.62607 461.43082 478.28528 0 0.52
114.458145 449.60324 479.63 0 0.52
113.11334 433.30008 491.60553 0 0.51
111.06321 414.62585 509.9693 0 0.48
110.863014 403.0771 511.73438 0 0.47
110.83523 392.17743 511.9843 0 0.47
110.8007 381.25992 512.32776 0 0.48
110.91449 370.8451 511.3673 0 0.48
111.281876 361.23132 508.1538 0 0.47
110.88737 349.14697 511.8169 0 0.48
110.79641 338.0657 512.77234 0 0.48
110.95925 327.75186 511.46613 0 0.47
111.16721 317.5351 509.77246 0 0.48
111.79063 308.42404 504.36157 0 0.54
113.97388 303.34308 484.9525 0 0.57
114.53746 293.6837 480.1112 0 0.59
114.693726 282.90982 478.93896 0 0.56
114.759926 271.89203 478.58337 0 0.56
114.654396 260.47128 479.7749 0 0.56
114.6715 249.33772 479.86865 0 0.56
114.67707 238.17686 480.068 0 0.56
114.69776 227.04485 480.13147 0 0.56
114.81479 216.09013 479.3296 0 0.56
114.83828 204.94568 479.36377 0 0.56
114.68557 193.49934 480.97253 0 0.56
114.682945 182.32138 481.22986 0 0.56
114.6123 171.04242 482.0891 0 0.56
113.212036 157.9225 494.84912 0 0.46
101.57762 131.79665 599.24414 0 0.46
99.46302 119.36231 618.35223 0 0.58
101.103516 111.48051 603.82776 0 0.52
101.13613 101.6628 603.6885 0 0.57
101.4046 92.05285 601.4267 0 0.46
100.88641 81.7531 606.19196 0 0.45
100.686264 71.78106 608.0976 0 0.44
100.30631 61.737366 611.5976 0 0.44
99.77393 51.688736 616.4465 0 0.46
92.23505 38.796707 683.9466 0 0.6
92.17106 29.789589 684.57196 0 0.62
92.15027 20.804686 684.7973 0 0.63
92.200485 11.83295 684.37366 0 0.62
92.23837 2.8510451 684.0464 0 0.61
92.208336 -6.1337223 684.31244 0 0.6
92.054825 -15.092395 685.66864 0 0.61
92.16676 -24.090536 684.637 0 0.57
92.183044 -33.076168 684.44696 0 0.54
92.0206 -41.98343 685.8419 0 0.53
91.846176 -50.852406 687.3308 0 0.54
91.826126 -59.78791 687.42596 0 0.54
92.04316 -68.896965 685.3873 0 0.57
91.971375 -77.80398 685.9204 0 0.62
92.025986 -86.81625 685.3107 0 0.62
92.041176 -95.798134 685.04266 0 0.62
92.04473 -104.76973 684.868 0 0.62
91.87191 -113.52407 686.263 0 0.62
93.49963 -124.645065 671.5237 0 0.54
99.274155 -142.01541 619.62396 0 0.43
99.79319 -152.48073 614.7822 0 0.42
100.08023 -162.6701 612.0104 0 0.42
100.40902 -172.98735 608.85724 0 0.41
100.34474 -182.65318 609.222 0 0.41
100.43229 -192.59766 608.2218 0 0.41
100.373436 -202.26414 608.5323 0 0.41
100.439125 -212.18227 607.72473 0 0.41
100.68236 -222.5056 605.32385 0 0.41
100.67285 -232.29312 605.1929 0 0.43
100.974495 -242.82704 602.2718 0 0.52
100.73158 -252.05713 604.24536 0 0.49
109.572 -284.8538 524.63275 0 0.42
114.214745 -308.0514 482.71045 0 0.49
112.18824 -313.51614 500.71655 0 0.46
110.3234 -319.05356 517.2906 0 0.45
106.46753 -318.27554 551.78564 0 0.39
103.28311 -318.81882 580.27246 0 0.38
99.20055 -315.88168 616.86304 0 0.38
94.69772 -310.76984 657.2627 0 0.39
92.42012 -312.29993 677.67834 0 0.4
90.46233 -314.49802 695.24396 0 0.4
89.10417 -318.45773 707.44275 0 0.41
87.44369 -321.04276 722.3882 0 0.41
85.84177 -323.52496 736.83484 0 0.42
84.93345 -328.37668 745.0724 0 0.41
84.53414 -335.069 748.76355 0 0.4
84.91567 -344.85464 745.4681 0 0.36
85.26563 -354.58328 742.49506 0 0.32
86.285095 -367.22952 733.54724 0 0.3
84.97606 -369.9375 745.5644 0 0.3
82.48307 -367.12073 768.24884 0 0.32
79.88361 -363.33392 791.9155 0 0.35
75.4063 -350.31662 832.45184 0 0.38
73.758865 -349.84937 847.61884 0 0.39
72.61158 -351.4822 858.33374 0 0.4
70.57172 -348.4839 877.0746 0 0.4
68.934746 -347.11682 892.23267 0 0.4
67.88932 -348.46707 902.12946 0 0.4
126.384605 587.0075 479.4746 0 0.46
126.565544 576.61163 477.09277 0 0.47
126.398865 564.63086 477.6283 0 0.48
126.309326 553.01746 477.6162 0 0.48
126.189804 541.29126 477.92676 0 0.49
126.1748 530.0254 477.45703 0 0.46
125.93942 517.856 478.85925 0 0.49
125.91677 506.5842 478.58838 0 0.5
125.91748 495.40845 478.1891 0 0.51
125.859055 484.00507 478.333 0 0.51
125.768005 472.4895 478.8003 0 0.52
125.83735 461.57846 478.00635 0 0.52
125.623985 449.64322 479.57776 0 0.52
124.510666 434.6045 488.57086 0 0.48
122.43089 416.4759 505.529 0 0.49
121.734184 403.29865 511.19287 0 0.46
121.646034 392.20712 511.90533 0 0.47
121.550095 381.1068 512.71484 0 0.48
121.64475 370.60428 511.99243 0 0.48
121.98875 360.8224 509.25482 0 0.47
121.897675 349.73117 510.10767 0 0.46
121.73984 338.47055 511.5301 0 0.46
121.773415 327.75314 511.4043 0 0.46
121.82664 317.0809 511.13574 0 0.49
122.2182 307.2497 508.1125 0 0.51
124.49219 301.91428 489.6925 0 0.56
125.63189 293.5249 480.57617 0 0.59
125.91873 283.0163 478.45264 0 0.57
125.96085 271.9284 478.33997 0 0.56
125.902855 260.62582 479.05188 0 0.56
125.77318 249.1915 480.35376 0 0.56
125.837105 238.14662 480.07397 0 0.56
125.94763 227.17444 479.41406 0 0.56
126.01558 216.10962 479.10095 0 0.56
126.01057 204.91405 479.38147 0 0.56
125.90194 193.56012 480.50378 0 0.56
125.92819 182.42084 480.51855 0 0.56
125.73008 170.97183 482.35815 0 0.56
125.54648 159.5764 484.07056 0 0.47
111.26257 131.54314 600.85016 0 0.34
109.42647 119.65771 616.00385 0 0.42
110.95246 111.47626 603.71295 0 0.47
111.01791 101.68608 603.32916 0 0.55
111.251144 92.02309 601.5654 0 0.45
110.62217 81.68202 606.821 0 0.45
110.49335 71.777534 607.9843 0 0.43
110.19809 61.80258 610.4909 0 0.44
109.55368 51.715237 615.82965 0 0.46
101.29173 38.822693 683.2458 0 0.6
101.160614 29.79162 684.36676 0 0.64
101.25947 20.831135 683.59985 0 0.62
101.25356 11.840848 683.67316 0 0.6
101.14281 2.8486574 684.5871 0 0.6
101.140335 -6.130432 684.6047 0 0.61
100.972176 -15.0843315 685.95886 0 0.62
101.0341 -24.063171 685.4241 0 0.58
101.2955 -33.118225 683.24976 0 0.51
101.20879 -42.074974 683.8994 0 0.49
101.108864 -51.00966 684.6437 0 0.5
101.14764 -60.008884 684.2445 0 0.5
101.20348 -69.02665 683.6934 0 0.54
101.003815 -77.85735 685.2142 0 0.62
101.03372 -86.84996 684.8512 0 0.62
100.92988 -95.72105 685.56824 0 0.62
100.96458 -104.71736 685.145 0 0.62
100.83604 -113.53604 686.0441 0 0.62
102.47011 -124.473 672.5484 0 0.55
108.61945 -141.58575 622.17847 0 0.43
109.3095 -152.1895 616.3568 0 0.42
109.714966 -162.4943 612.85016 0 0.42
110.13604 -172.89554 609.2088 0 0.42
110.06657 -182.55797 609.5694 0 0.41
110.19325 -192.55083 608.3238 0 0.41
110.30748 -202.54327 607.1774 0 0.41
110.17316 -212.07759 608.0623 0 0.41
110.35248 -222.2196 606.38336 0 0.41
110.49046 -232.30656 605.04425 0 0.42
110.704865 -242.5855 603.08307 0 0.51
110.556915 -252.07628 604.09216 0 0.48
121.55921 -287.95398 513.835 0 0.41
125.16403 -307.60498 484.11694 0 0.53
123.84223 -315.35095 494.74426 0 0.52
122.11461 -321.7928 508.71405 0 0.46
116.87899 -318.3723 551.442 0 0.41
112.32872 -315.9499 588.58606 0 0.38
109.601074 -318.00793 610.8248 0 0.37
106.286644 -317.82703 637.89813 0 0.37
102.22232 -314.74863 671.14465 0 0.39
99.08504 -313.88528 696.8213 0 0.4
97.59805 -317.83932 708.9991 0 0.41
95.976036 -321.0776 722.311 0 0.42
94.360825 -324.0512 735.59503 0 0.42
93.811295 -330.49237 740.17523 0 0.43
92.123764 -332.72586 754.1111 0 0.42
90.19618 -333.7714 770.04346 0 0.42
88.38977 -334.93378 785.013 0 0.41
87.25219 -338.36923 794.5364 0 0.39
88.879944 -352.57233 781.46045 0 0.36
89.893425 -364.57315 773.4625 0 0.31
91.76386 -380.30557 758.50964 0 0.28
90.99804 -385.21024 765.1673 0 0.28
87.70788 -379.069 792.4879 0 0.29
84.20073 -371.38644 821.59735 0 0.33
79.67905 -358.5163 858.9929 0 0.36
75.85628 -348.05008 890.6857 0 0.38
75.0278 -350.90958 897.99475 0 0.39
137.7455 587.59485 478.66016 0 0.46
137.76712 576.45386 477.5752 0 0.47
137.64175 564.7064 477.67505 0 0.48
137.45488 552.732 478.3181 0 0.48
137.32257 541.0032 478.63025 0 0.47
137.24512 529.5074 478.6051 0 0.48
137.16374 518.00946 478.67993 0 0.5
137.13725 506.72763 478.4088 0 0.5
137.10641 495.43448 478.23328 0 0.51
137.10065 484.2349 477.9286 0 0.51
136.96992 472.60495 478.62024 0 0.52
136.92308 461.279 478.734 0 0.52
136.56786 448.94696 481.21802 0 0.5
135.83968 435.47714 486.55615 0 0.49
134.18591 419.23434 498.90527 0 0.51
132.63503 403.57434 510.52124 0 0.47
132.47635 392.28973 511.69476 0 0.47
132.37033 381.18268 512.5054 0 0.49
132.37895 370.41367 512.48364 0 0.48
132.379 359.62006 512.55426 0 0.47
132.65005 349.54047 510.61102 0 0.47
132.50772 338.36108 511.80188 0 0.47
132.57376 327.72006 511.44507 0 0.48
132.3786 316.44385 513.07166 0 0.5
132.73892 306.482 510.53577 0 0.51
134.67143 299.9633 496.19196 0 0.55
136.76283 293.47034 480.67114 0 0.57
137.07314 282.95966 478.55457 0 0.57
137.1812 271.99734 477.9668 0 0.56
137.1808 260.81122 478.2002 0 0.56
136.97453 249.25053 479.98413 0 0.56
137.01064 238.1448 479.94934 0 0.56
137.0973 227.1169 479.53577 0 0.56
137.0729 215.89998 479.95496 0 0.56
137.06596 204.71304 480.2406 0 0.56
137.04384 193.50584 480.63623 0 0.56
137.10378 182.4114 480.41064 0 0.56
136.9526 171.04355 481.76196 0 0.56
136.75215 159.64279 483.47424 0 0.47
125.475815 136.24803 568.21234 0 0.32
119.979454 120.49699 609.5849 0 0.39
120.68717 111.36729 604.43774 0 0.47
120.987595 101.77952 602.33374 0 0.55
121.27364 92.13184 600.3267 0 0.45
120.49068 81.71256 606.3161 0 0.44
120.44914 71.86331 606.73804 0 0.43
119.929855 61.774746 610.72504 0 0.43
119.526245 51.821014 613.8314 0 0.45
110.313126 38.832016 682.88806 0 0.59
110.26962 29.82563 683.2652 0 0.62
110.41004 20.861092 682.25195 0 0.6
110.2381 11.840099 683.56396 0 0.6
110.051476 2.8467684 684.97235 0 0.62
110.01571 -6.124526 685.2377 0 0.62
110.16389 -15.115228 684.1121 0 0.58
110.065865 -24.076235 684.8166 0 0.55
109.98641 -33.026836 685.3685 0 0.55
109.92559 -41.971596 685.7679 0 0.54
109.718346 -50.83859 687.251 0 0.55
109.860115 -59.86196 686.1079 0 0.55
110.08632 -68.96135 684.3198 0 0.54
109.770966 -77.71421 686.57654 0 0.62
110.0016 -86.84671 684.73206 0 0.62
109.95496 -95.775314 684.9539 0 0.62
109.99318 -104.77712 684.53 0 0.62
109.85396 -113.60169 685.4265 0 0.62
110.48661 -123.264694 680.5277 0 0.56
118.57822 -141.96066 619.6847 0 0.43
119.03549 -152.2139 616.0712 0 0.42
119.18456 -162.12248 614.76184 0 0.42
119.67632 -172.54948 610.87506 0 0.41
119.7318 -182.39206 610.2568 0 0.41
120.03229 -192.63692 607.796 0 0.41
120.15745 -202.63507 606.649 0 0.4
119.81959 -211.83508 608.97845 0 0.4
120.04814 -222.02753 607.05524 0 0.4
120.19965 -232.10847 605.71277 0 0.41
120.402466 -242.31737 603.9883 0 0.49
120.46574 -252.26714 603.31793 0 0.45
130.46579 -283.84607 527.94135 0 0.4
135.94046 -306.84116 486.57715 0 0.53
135.79672 -317.5892 487.47015 0 0.56
136.1763 -329.58035 484.44165 0 0.54
135.04117 -337.8439 492.82654 0 0.52
128.04208 -330.7739 545.3603 0 0.44
118.284584 -315.21173 618.68774 0 0.39
115.149864 -316.24716 642.2035 0 0.38
112.09107 -316.98608 665.1743 0 0.37
109.723175 -319.23633 682.97107 0 0.37
107.24313 -320.76505 701.63873 0 0.39
104.65296 -321.55093 721.1628 0 0.41
102.653915 -323.77887 736.2649 0 0.41
102.1186 -330.4169 740.37964 0 0.43
100.2244 -332.46002 754.7515 0 0.42
98.03945 -333.20605 771.34045 0 0.42
95.95696 -333.95236 787.1876 0 0.42
94.48347 -336.52817 798.48505 0 0.42
93.55295 -340.84195 805.73346 0 0.41
92.27144 -343.69653 815.65485 0 0.41
91.05619 -346.59442 825.113 0 0.39
91.81599 -356.97287 819.7831 0 0.35
93.35764 -370.5788 808.64264 0 0.31
95.3516 -386.2685 794.1775 0 0.28
97.18316 -401.6121 781.0045 0 0.28
96.28107 -405.7347 788.36884 0 0.29
93.31131 -400.8283 811.2401 0 0.31
149.0244 587.7702 478.59058 0 0.46
148.82661 575.7702 479.0193 0 0.47
148.75093 564.26337 478.6886 0 0.47
148.73538 552.99146 478.02246 0 0.47
148.65366 541.48083 477.8927 0 0.46
148.4728 529.62885 478.52502 0 0.49
148.47835 518.4551 477.93433 0 0.5
148.28777 506.6104 478.7727 0 0.5
148.31628 495.52655 478.15234 0 0.51
148.17876 483.8961 478.7461 0 0.51
148.0348 472.26584 479.4414 0 0.52
148.04659 461.14236 479.10718 0 0.52
147.26863 447.61685 484.3169 0 0.5
147.19904 436.30823 484.64612 0 0.51
146.56262 423.37265 488.9635 0 0.52
143.8011 404.55453 508.11157 0 0.5
143.33066 392.42557 511.3529 0 0.52
143.14772 381.13303 512.627 0 0.54
143.18826 370.44623 512.3767 0 0.51
143.05244 359.3103 513.3822 0 0.48
143.10757 348.66006 513.0846 0 0.48
143.08551 337.81934 513.34735 0 0.49
143.25566 327.42123 512.2937 0 0.49
143.00864 316.07544 514.1606 0 0.5
143.36137 306.04727 511.87213 0 0.5
144.55817 297.70413 503.72955 0 0.53
147.25705 292.1607 485.1596 0 0.55
148.1725 282.80652 479.00293 0 0.56
148.21835 271.72003 478.9004 0 0.56
148.25043 260.60248 478.8999 0 0.56
148.23358 249.39775 479.24365 0 0.56
148.23654 238.2274 479.4525 0 0.56
148.29391 227.13994 479.28442 0 0.56
148.26619 215.91992 479.70654 0 0.56
148.11745 204.53694 480.9663 0 0.56
147.81148 192.97115 483.31262 0 0.56
147.83899 181.86168 483.33984 0 0.55
147.18085 169.9563 488.11615 0 0.52
146.57358 158.20512 492.5301 0 0.41
137.46768 138.01314 555.85376 0 0.29
129.3053 120.07022 612.60486 0 0.34
130.59962 111.42641 603.78735 0 0.47
130.78143 101.722084 602.67163 0 0.53
131.08954 92.079094 600.6701 0 0.44
130.35017 81.732834 605.9138 0 0.43
129.8775 71.64519 609.2965 0 0.43
129.7437 61.790188 610.31885 0 0.43
129.5929 51.948555 611.44543 0 0.44
121.50105 39.54508 667.5473 0 0.57
119.13369 29.793257 683.99084 0 0.63
119.21363 20.82591 683.4747 0 0.62
118.956345 11.813018 685.2803 0 0.63
118.96917 2.8453803 685.20233 0 0.62
119.645294 -6.1583314 680.5187 0 0.52
119.37651 -15.144116 682.36383 0 0.5
119.16355 -24.100664 683.80927 0 0.5
119.14934 -33.08028 683.86566 0 0.51
119.11952 -42.052254 684.017 0 0.48
118.96725 -50.96726 685.0039 0 0.51
119.04919 -59.977306 684.3564 0 0.49
119.222466 -69.05261 683.06415 0 0.52
118.74007 -77.724846 686.3024 0 0.62
119.025154 -86.88458 684.21295 0 0.62
118.93988 -95.78905 684.6789 0 0.62
119.01722 -104.82386 684.0082 0 0.62
118.8322 -113.6195 685.1469 0 0.62
118.63339 -122.37301 686.3731 0 0.58
127.83146 -141.49803 622.4281 0 0.43
128.6084 -152.05365 616.8601 0 0.42
129.05154 -162.30658 613.59955 0 0.42
129.44324 -172.55775 610.6896 0 0.41
129.81886 -182.84534 607.88586 0 0.41
129.65561 -192.38995 608.8192 0 0.41
129.72287 -202.26936 608.151 0 0.4
129.49873 -211.68259 609.5063 0 0.4
129.60873 -221.6334 608.54236 0 0.4
130.11954 -232.31642 604.79614 0 0.41
130.27086 -242.4075 603.55115 0 0.47
130.99258 -253.62585 598.3466 0 0.42
144.5978 -290.86908 503.575 0 0.42
147.36333 -307.54166 484.15527 0 0.53
147.20888 -318.3172 485.0503 0 0.56
147.61966 -330.33423 482.0293 0 0.56
146.42825 -338.7072 490.17145 0 0.57
145.9071 -348.5014 493.67206 0 0.5
141.21754 -347.9465 526.2025 0 0.45
127.15255 -322.8776 624.00903 0 0.41
119.54208 -312.56448 676.93054 0 0.42
117.29098 -315.52094 692.58026 0 0.4
116.14084 -321.1827 700.5939 0 0.38
113.97045 -323.7726 715.73566 0 0.38
111.31712 -324.62695 734.26587 0 0.39
109.59408 -327.8643 746.3508 0 0.42
107.3571 -329.2656 762.0408 0 0.42
105.651886 -332.00058 774.0609 0 0.42
104.084656 -334.92252 785.15216 0 0.42
102.42878 -337.31625 796.89154 0 0.42
100.49308 -338.51764 810.6072 0 0.42
99.43262 -342.4415 818.2741 0 0.42
98.53682 -346.7849 824.8342 0 0.41
96.82032 -348.04315 837.12695 0 0.41
94.83048 -348.0393 851.3474 0 0.4
93.578445 -350.49896 860.48486 0 0.38
95.219986 -363.82587 849.62427 0 0.35
99.1592 -386.35263 822.9401 0 0.31
104.31125 -414.29037 787.9796 0 0.3
160.43257 588.395 477.75684 0 0.46
160.25162 576.4973 477.9618 0 0.47
160.2696 565.32684 476.9723 0 0.46
160.04814 553.3259 477.60657 0 0.45
159.68596 540.87946 479.22766 0 0.48
159.65895 529.5955 478.76294 0 0.49
159.79926 518.8587 477.28845 0 0.5
159.52351 506.78046 478.56702 0 0.5
159.41356 495.2558 478.8396 0 0.51
159.43614 484.14923 478.31555 0 0.51
159.2792 472.50684 479.00916 0 0.52
159.07991 460.76376 480.03064 0 0.52
158.76721 448.72818 481.83643 0 0.48
158.65617 437.29214 482.38538 0 0.53
158.25403 425.08978 484.86206 0 0.53
155.1108 405.7731 505.11835 0 0.53
153.92876 391.89005 512.7224 0 0.54
153.94339 381.13556 512.61615 0 0.54
153.80539 370.01184 513.529 0 0.52
153.94426 359.55408 512.67883 0 0.48
153.92937 348.7285 512.84985 0 0.48
153.83113 337.72202 513.58374 0 0.48
153.90251 327.0898 513.24133 0 0.48
153.74391 315.975 514.40533 0 0.49
153.97421 305.6544 513.07074 0 0.5
154.70654 296.26288 508.50452 0 0.52
157.56334 290.68808 490.21716 0 0.55
159.13211 282.42682 480.27295 0 0.56
159.32675 271.6031 479.22205 0 0.56
159.39615 260.5474 478.98718 0 0.56
159.37614 249.34206 479.3352 0 0.56
159.41476 238.22713 479.30737 0 0.56
159.3251 226.92415 480.10925 0 0.56
159.14345 215.50911 481.5044 0 0.56
155.33838 199.46678 506.28424 0 0.53
141.41191 171.6708 596.3641 0 0.5
132.84166 151.95422 651.8453 0 0.51
153.01903 164.30766 521.8653 0 0.48
156.5209 157.09543 499.4724 0 0.38
150.42126 140.42853 538.9902 0 0.29
0.0 0.0 0.0 0 0.34
140.20091 111.23036 605.20056 0 0.46
140.69969 101.7627 602.1266 0 0.53
140.64827 91.86576 602.58813 0 0.44
140.12083 81.69848 606.10516 0 0.43
139.99504 71.81118 607.0218 0 0.43
139.77463 61.899612 608.53534 0 0.43
139.19128 51.883663 612.37335 0 0.43
131.92212 39.92605 659.25745 0 0.54
128.00113 29.766201 684.5598 0 0.63
128.12505 20.813177 683.7983 0 0.63
128.15558 11.834149 683.62537 0 0.62
128.01585 2.847056 684.5357 0 0.61
128.47311 -6.149021 681.58875 0 0.51
128.0313 -15.103147 684.4186 0 0.51
127.95634 -24.064323 684.87286 0 0.52
127.97969 -33.040375 684.6812 0 0.51
128.06302 -42.039383 684.0908 0 0.5
128.05307 -51.012913 684.0887 0 0.51
128.33264 -60.12069 682.2094 0 0.49
128.21315 -69.05274 682.889 0 0.51
127.73408 -77.749146 685.8745 0 0.61
127.88818 -86.8082 684.7697 0 0.62
127.79753 -95.70555 685.23206 0 0.62
127.91952 -104.764336 684.31433 0 0.62
127.87371 -113.691055 684.4692 0 0.62
127.5853 -122.37864 686.18054 0 0.59
135.79604 -139.7739 633.0691 0 0.44
138.7493 -152.54028 613.8458 0 0.42
139.18765 -162.77959 610.8356 0 0.41
139.15726 -172.49927 610.8445 0 0.41
139.52446 -182.7354 608.2833 0 0.41
139.50053 -192.48337 608.24384 0 0.4
139.61137 -202.42339 607.33295 0 0.4
139.74454 -212.41287 606.2778 0 0.4
139.67719 -222.10213 606.51953 0 0.4
140.15233 -232.68266 603.25885 0 0.41
139.90938 -242.0873 604.6429 0 0.47
140.79716 -253.49359 598.7246 0 0.41
158.1631 -295.84717 486.2699 0 0.44
158.70915 -307.99435 482.55664 0 0.54
158.36217 -318.42252 484.63147 0 0.57
158.80527 -330.44608 481.6117 0 0.56
157.70938 -339.22147 488.56598 0 0.57
157.3682 -349.51947 490.65894 0 0.51
156.58546 -358.75806 495.63196 0 0.47
154.03748 -363.71863 512.0546 0 0.43
139.7222 -339.71173 604.66046 0 0.43
125.248764 -313.3021 698.3211 0 0.4
123.37909 -317.27435 710.4402 0 0.41
121.72834 -321.56284 721.1695 0 0.4
119.20118 -323.2433 737.5979 0 0.39
118.8306 -330.5686 740.1017 0 0.38
116.74142 -332.94067 753.7551 0 0.4
113.68601 -332.19644 773.687 0 0.41
112.14333 -335.55017 783.8654 0 0.41
109.881134 -336.48416 798.72656 0 0.42
107.90828 -338.00742 811.7476 0 0.42
107.14951 -343.14215 816.95917 0 0.42
105.43535 -345.04382 828.3761 0 0.41
103.97034 -347.53802 838.2187 0 0.41
102.038895 -348.235 851.10315 0 0.41
100.72922 -350.82672 860.0131 0 0.41
99.2258 -352.54648 870.2069 0 0.4
97.39699 -352.8765 882.52795 0 0.39
96.85161 -357.69 886.63367 0 0.38
171.27968 587.01514 480.46033 0 0.46
171.40492 576.2158 478.73132 0 0.46
171.27647 564.56396 478.6117 0 0.44
171.10817 552.80005 478.8147 0 0.48
170.89903 540.9291 479.3424 0 0.49
170.90361 529.7479 478.6576 0 0.49
170.79428 518.2206 478.73047 0 0.5
170.60599 506.47305 479.34766 0 0.5
170.63264 495.37424 478.7318 0 0.51
170.61685 484.15155 478.4325 0 0.51
170.44608 472.50125 479.1266 0 0.51
170.23009 460.75098 480.14844 0 0.5
169.93039 448.80792 481.72742 0 0.49
170.14737 438.2348 480.2306 0 0.53
169.94252 426.5745 481.3285 0 0.53
167.45435 409.3592 496.2754 0 0.52
164.63486 391.68164 513.2663 0 0.54
164.64745 380.92578 513.1652 0 0.54
164.53528 369.88782 513.8504 0 0.53
164.79608 359.67853 512.30914 0 0.49
164.73918 348.7625 512.7157 0 0.48
164.67038 337.82953 513.21814 0 0.48
164.66669 327.0349 513.3483 0 0.49
164.65045 316.21658 513.5737 0 0.5
164.69919 305.52094 513.4234 0 0.5
165.28313 295.77673 510.05328 0 0.5
167.74265 289.18948 495.36475 0 0.53
170.16255 282.21432 480.9314 0 0.56
170.4864 271.58307 479.1726 0 0.56
170.598 260.58524 478.70337 0 0.56
170.65405 249.4915 478.57495 0 0.56
170.53416 238.1448 479.51196 0 0.56
170.43631 226.8431 480.31738 0 0.56
169.96005 215.07536 483.406 0 0.55
156.98642 188.37395 561.88196 0 0.48
167.05664 189.51396 501.33972 0 0.49
145.4435 155.46756 631.86993 0 0.53
135.59523 136.05788 691.4149 0 0.5
164.6801 154.45403 516.25305 0 0.44
155.12024 135.3261 574.0462 0 0.29
148.71565 119.9966 612.7984 0 0.34
149.95383 111.1724 605.484 0 0.46
150.40413 101.653465 602.90845 0 0.52
150.38885 91.791374 603.12714 0 0.44
149.82458 81.632164 606.641 0 0.43
150.01607 71.90915 605.5916 0 0.42
149.45328 61.848896 609.0717 0 0.43
148.91139 51.869663 612.4127 0 0.43
142.57935 40.323875 650.59607 0 0.53
136.91786 29.753412 684.72534 0 0.62
137.13187 20.816595 683.47284 0 0.62
137.12337 11.8325405 683.5472 0 0.62
136.81017 2.8432667 685.4427 0 0.61
137.33955 -6.1426573 682.254 0 0.52
136.9497 -15.096608 684.5855 0 0.53
136.86983 -24.053959 685.0385 0 0.52
136.81323 -33.00646 685.3391 0 0.53
136.77988 -41.95867 685.4874 0 0.51
136.85161 -50.945644 684.9909 0 0.51
136.82404 -59.898537 685.08057 0 0.52
137.02402 -68.96233 683.7887 0 0.51
136.71704 -77.76398 685.5387 0 0.61
136.88235 -86.825 684.434 0 0.62
136.7863 -95.72474 684.89374 0 0.62
136.67377 -104.599304 685.4436 0 0.62
136.70728 -113.58045 685.1053 0 0.62
136.44096 -122.29724 686.5661 0 0.6
144.44467 -138.93367 638.16754 0 0.45
148.12654 -152.17862 615.8022 0 0.41
149.03972 -162.88017 610.11914 0 0.41
148.80763 -172.37471 611.33734 0 0.41
149.2818 -182.70322 608.2919 0 0.4
149.2579 -192.45166 608.2486 0 0.4
149.21846 -202.17589 608.29834 0 0.4
149.1241 -211.81696 608.68024 0 0.39
149.01534 -221.42424 609.1514 0 0.39
149.68439 -232.22404 604.92896 0 0.4
149.66447 -241.99748 604.8716 0 0.47
151.83542 -255.45425 591.585 0 0.4
168.3067 -294.1918 491.89093 0 0.44
169.67796 -307.70404 483.43274 0 0.53
169.38821 -318.27496 485.02576 0 0.55
169.82547 -330.22162 482.2401 0 0.55
168.65752 -338.9991 489.17755 0 0.56
168.29591 -349.29712 491.26135 0 0.49
167.07753 -357.71335 498.5495 0 0.44
164.8582 -363.7614 511.9171 0 0.37
161.03716 -365.87958 534.99994 0 0.31
139.93173 -327.09436 662.6424 0 0.27
132.29521 -317.91025 708.8552 0 0.36
129.09476 -318.67627 728.2665 0 0.4
126.70226 -321.07037 742.81903 0 0.41
126.42424 -328.64774 744.6164 0 0.42
124.2714 -331.19214 757.7788 0 0.39
121.90548 -332.87262 772.2585 0 0.38
120.44368 -336.7712 781.3056 0 0.38
118.877426 -340.1793 791.0168 0 0.4
116.13951 -339.95264 807.83405 0 0.41
114.04301 -341.2867 820.80884 0 0.41
111.7764 -341.826 834.84015 0 0.41
110.435234 -344.95895 843.3235 0 0.41
109.392235 -348.8672 850.04724 0 0.41
107.55968 -350.069 861.56213 0 0.41
105.77543 -351.19113 872.819 0 0.4
104.07517 -352.36383 883.6038 0 0.4
102.243835 -352.8614 895.20844 0 0.4
182.2529 586.21063 482.1798 0 0.43
182.42003 575.53284 480.2422 0 0.45
182.43248 564.35626 479.26025 0 0.47
182.2881 552.7025 479.24585 0 0.48
182.21667 541.28326 478.89795 0 0.49
182.14085 529.86 478.65002 0 0.49
181.86525 517.87714 479.60413 0 0.5
181.73918 506.34482 479.78064 0 0.5
181.80318 495.34583 478.94507 0 0.51
181.74345 484.00955 478.87097 0 0.51
181.51854 472.25082 479.79102 0 0.51
181.24522 460.3968 481.04065 0 0.48
181.44078 449.7385 479.68225 0 0.51
181.38957 438.45972 479.77124 0 0.53
181.12851 426.69287 481.09583 0 0.53
179.5665 411.97342 489.8454 0 0.52
175.59695 392.07056 512.2991 0 0.54
175.28313 380.59338 514.04114 0 0.53
175.20094 369.6436 514.50055 0 0.52
175.47498 359.43356 512.9677 0 0.49
175.4111 348.51843 513.3796 0 0.48
175.4169 337.7453 513.4204 0 0.49
175.45126 327.0247 513.32104 0 0.51
175.55542 316.42566 512.8456 0 0.52
175.48024 305.50168 513.4048 0 0.51
175.807 295.2619 511.69928 0 0.5
177.75085 287.59842 500.83655 0 0.52
180.78038 281.38574 483.83276 0 0.55
181.54115 271.40872 479.7063 0 0.56
181.61491 260.3533 479.48303 0 0.56
181.71394 249.32349 479.1223 0 0.56
181.71094 238.14777 479.34375 0 0.56
181.56221 226.79039 480.3927 0 0.56
177.39238 210.67575 504.21582 0 0.54
171.30722 192.91687 538.874 0 0.46
180.99745 192.70175 484.2057 0 0.53
180.38258 180.95715 487.88464 0 0.55
121.146515 114.08433 823.3067 0 0.51
171.81625 151.23701 536.7335 0 0.44
164.31331 134.53075 579.3493 0 0.3
159.65721 120.90284 605.8404 0 0.36
160.49911 111.6729 601.2211 0 0.46
160.24222 101.642456 602.80743 0 0.52
160.13835 91.73125 603.518 0 0.43
159.19028 81.40115 608.9899 0 0.43
159.47949 71.744225 607.4558 0 0.42
159.0104 61.757233 610.19604 0 0.42
159.08578 52.0059 609.8467 0 0.43
152.2653 40.414978 648.453 0 0.51
145.94016 29.763718 684.24304 0 0.61
146.03685 20.805084 683.7315 0 0.62
145.89691 11.815397 684.54474 0 0.62
145.60735 2.8399992 686.191 0 0.61
146.17027 -6.1355786 683.008 0 0.52
146.10437 -15.115318 683.36566 0 0.5
145.8454 -24.055109 684.80194 0 0.53
145.61136 -32.9687 686.08527 0 0.53
145.57635 -41.910824 686.23193 0 0.51
145.65326 -50.88773 685.73456 0 0.51
145.66809 -59.8486 685.5765 0 0.51
146.14195 -69.02809 682.8127 0 0.5
145.5993 -77.72325 685.7841 0 0.61
145.81937 -86.8057 684.434 0 0.62
145.67493 -95.67582 685.13513 0 0.62
145.64276 -104.60882 685.1926 0 0.62
145.67946 -113.59155 684.85254 0 0.62
145.3974 -122.31067 686.3081 0 0.6
152.23398 -137.42105 647.4767 0 0.46
156.96915 -151.34595 620.5182 0 0.42
158.37169 -162.43494 612.40936 0 0.41
158.4692 -172.27766 611.6821 0 0.4
158.67697 -182.25902 610.3272 0 0.4
158.73932 -192.08992 609.7939 0 0.4
158.91211 -202.06892 608.63416 0 0.39
158.68695 -211.53873 609.72986 0 0.39
158.95381 -221.66695 608.0401 0 0.39
159.58282 -232.35529 604.3006 0 0.4
159.64755 -242.2647 603.76447 0 0.47
160.99536 -254.20796 595.9598 0 0.4
177.18387 -290.66254 503.99127 0 0.4
179.9419 -306.2498 488.18854 0 0.51
180.51051 -318.3153 484.8164 0 0.54
181.01973 -330.34244 481.79675 0 0.54
179.61505 -338.82175 489.65588 0 0.54
179.11034 -348.88138 492.43018 0 0.42
177.69504 -357.0493 500.39612 0 0.31
180.56364 -373.91437 484.07446 0 0.22
221.84686 -473.04352 249.74792 0 0.21
256.4659 -562.62915 53.285034 0 0.21
144.86826 -326.71524 686.7187 0 0.2
138.51328 -320.89893 722.85443 0 0.27
134.8839 -320.78326 743.54736 0 0.36
133.31223 -325.24155 752.5923 0 0.41
130.79036 -327.12997 767.057 0 0.42
128.44014 -329.14816 780.57697 0 0.41
126.93214 -333.08746 789.3518 0 0.39
126.966125 -340.98248 789.4215 0 0.38
125.03449 -343.48203 800.6662 0 0.38
121.86331 -342.26263 818.9613 0 0.39
119.2577 -342.27652 834.0815 0 0.4
117.56072 -344.63376 844.09125 0 0.41
116.06719 -347.39124 852.9854 0 0.41
113.81327 -347.6425 866.2095 0 0.4
111.99632 -348.9781 876.99725 0 0.4
110.68799 -351.7065 884.95056 0 0.4
108.77986 -352.33127 896.31995 0 0.4
193.6676 586.837 481.41968 0 0.44
193.4768 575.0529 481.41467 0 0.47
193.72961 564.5839 479.13867 0 0.47
193.61378 553.0326 478.90332 0 0.48
193.37054 541.1381 479.4254 0 0.48
193.20372 529.48126 479.61694 0 0.49
193.19635 518.2714 479.03088 0 0.49
193.10085 506.83115 478.98267 0 0.5
192.9157 495.1718 479.47778 0 0.51
192.80649 483.72452 479.62952 0 0.51
192.27025 471.24316 482.11987 0 0.5
192.0173 459.50195 483.15308 0 0.47
192.68417 449.93784 479.32336 0 0.52
192.54166 438.45334 479.8661 0 0.53
192.3038 426.7738 480.96362 0 0.53
191.54192 413.98923 484.90533 0 0.52
187.67776 394.7675 505.4732 0 0.5
186.31381 381.10748 512.7116 0 0.49
186.3105 370.30994 512.7076 0 0.48
186.1222 359.1558 513.7226 0 0.48
186.22456 348.5675 513.2107 0 0.48
186.35834 338.02435 512.5558 0 0.49
185.99837 326.59875 514.5629 0 0.54
185.84155 315.55975 515.50385 0 0.57
186.15343 305.30765 513.9572 0 0.55
186.408 294.92877 512.73285 0 0.5
187.53409 285.84872 506.8659 0 0.51
191.093 280.20563 488.0152 0 0.54
192.42833 271.01855 481.05774 0 0.56
192.77089 260.33606 479.41248 0 0.56
192.64928 249.0139 480.25244 0 0.56
192.64291 237.84814 480.48108 0 0.56
192.57227 226.60745 481.05542 0 0.56
192.03053 214.84793 484.1443 0 0.54
175.4203 186.104 572.96326 0 0.47
191.87549 192.44826 485.36304 0 0.53
191.58464 181.0603 487.1053 0 0.55
135.01775 119.780815 788.92957 0 0.51
167.9738 139.28896 613.3522 0 0.41
177.79784 137.13763 561.136 0 0.29
169.71577 121.074165 604.36414 0 0.28
170.42355 111.708466 600.7303 0 0.46
170.1961 101.70191 602.0717 0 0.52
170.03918 91.75977 603.0273 0 0.43
169.4016 81.604256 606.53284 0 0.42
169.47752 71.82498 606.2264 0 0.42
169.39433 61.9787 606.756 0 0.42
168.50658 51.89427 611.55817 0 0.42
162.98691 40.754486 641.01184 0 0.48
154.7657 29.735033 684.8345 0 0.61
155.05226 20.809732 683.3424 0 0.62
154.99615 11.825091 683.6631 0 0.62
154.5971 2.8406491 685.7976 0 0.61
155.14723 -6.1351013 682.86646 0 0.52
155.07755 -15.114168 683.22314 0 0.48
155.17247 -24.11074 682.6914 0 0.48
155.10919 -33.084564 682.9902 0 0.49
154.79578 -41.983223 684.60925 0 0.48
154.78549 -50.945335 684.60297 0 0.46
154.57161 -59.82746 685.6698 0 0.46
155.21223 -69.06504 682.1747 0 0.49
154.45453 -77.673615 686.1176 0 0.6
154.5969 -86.699196 685.2564 0 0.62
154.49101 -95.587685 685.7086 0 0.62
154.59554 -104.60626 685.03107 0 0.62
154.5443 -113.522514 685.1759 0 0.62
154.3382 -122.31012 686.1391 0 0.61
160.12474 -136.17 655.14484 0 0.48
166.64479 -151.36641 620.2225 0 0.42
167.99615 -162.32396 612.851 0 0.41
168.1921 -172.25464 611.6373 0 0.4
168.41417 -182.23636 610.2809 0 0.4
168.34708 -191.91411 610.46594 0 0.39
168.80234 -202.20987 607.86285 0 0.39
168.74509 -211.91469 607.99634 0 0.39
168.62674 -221.53265 608.4589 0 0.38
168.8943 -231.66623 606.865 0 0.4
169.3671 -242.12419 604.18 0 0.46
171.90698 -255.71169 590.45807 0 0.39
191.31488 -295.66162 486.60657 0 0.42
191.5402 -307.1035 485.25348 0 0.52
191.66046 -318.39694 484.4762 0 0.54
192.07158 -330.2044 482.1609 0 0.54
190.63034 -338.7676 489.7672 0 0.52
190.36018 -349.31287 491.135 0 0.35
191.77124 -363.00922 483.53784 0 0.24
0.0 0.0 0.0 0 0.22
0.0 0.0 0.0 0 0.21
0.0 0.0 0.0 0 0.2
0.0 0.0 0.0 0 0.19
0.0 0.0 0.0 0 0.18
143.50632 -321.517 741.84827 0 0.2
140.78333 -323.57022 756.54175 0 0.28
137.69388 -324.44458 773.2209 0 0.37
135.5041 -327.133 785.1215 0 0.41
133.99527 -331.25122 793.41583 0 0.42
132.24237 -334.57706 803.046 0 0.41
130.12393 -336.7539 814.65906 0 0.39
128.59723 -340.251 823.1481 0 0.38
127.36726 -344.37357 830.0906 0 0.37
125.65015 -347.0083 839.6654 0 0.38
123.41098 -347.97214 852.0537 0 0.39
120.533775 -346.84064 867.86615 0 0.4
117.92024 -346.1498 882.302 0 0.4
116.66073 -349.20938 889.5753 0 0.4
114.28031 -348.70282 902.83215 0 0.4
204.75081 586.4453 482.46997 0 0.42
204.6728 575.01666 481.82068 0 0.46
204.72054 563.9431 480.6261 0 0.47
204.85184 553.08984 479.09302 0 0.48
204.80714 541.7567 478.52283 0 0.48
204.32309 529.2903 480.24023 0 0.49
204.31061 518.0727 479.65637 0 0.49
204.07367 506.2995 480.27258 0 0.5
204.04886 495.06696 479.8849 0 0.5
203.84077 483.40256 480.4834 0 0.51
202.29483 468.6614 487.89313 0 0.5
202.24165 457.46616 487.82635 0 0.5
203.56337 449.31146 480.86755 0 0.51
203.58679 438.21744 480.5122 0 0.53
203.46591 426.8182 480.9314 0 0.53
203.06328 414.8566 482.8169 0 0.53
199.65886 396.97076 499.9123 0 0.5
197.30971 381.49802 511.71356 0 0.47
197.07516 370.25534 512.8617 0 0.47
196.91821 359.1799 513.64795 0 0.48
196.83908 348.25928 514.0687 0 0.48
197.1143 337.9549 512.7238 0 0.48
197.05383 327.06317 513.09827 0 0.49
197.07098 316.3027 513.101 0 0.51
196.98004 305.37274 513.6683 0 0.51
196.8727 294.4282 514.3344 0 0.5
197.44963 284.48135 511.5578 0 0.51
200.87314 278.41678 494.41766 0 0.53
203.49881 270.91516 481.32202 0 0.55
203.85722 260.2318 479.6858 0 0.56
203.91473 249.14157 479.57544 0 0.56
203.90536 237.96704 479.80737 0 0.56
203.78076 226.66533 480.6239 0 0.56
203.3016 215.00227 483.23035 0 0.55
188.48384 189.01286 558.16156 0 0.5
200.50357 190.08945 497.7166 0 0.51
202.48917 180.88632 487.88586 0 0.55
123.185 103.298874 887.8713 0 0.52
173.32758 135.85767 635.2292 0 0.4
192.89029 140.63126 536.7804 0 0.27
183.97867 124.061844 581.8371 0 0.28
180.3336 111.73122 600.33826 0 0.46
180.18898 101.77688 601.192 0 0.52
180.02228 91.82712 602.1474 0 0.43
179.44528 81.708786 605.1592 0 0.42
179.03922 71.72209 607.29895 0 0.42
178.99889 61.90637 607.5857 0 0.42
178.30405 51.904526 611.1564 0 0.42
173.83955 41.087788 633.6934 0 0.46
163.55562 29.703018 685.5126 0 0.6
163.71164 20.7687 684.7599 0 0.62
163.74954 11.808781 684.5903 0 0.62
163.47433 2.8392737 685.9853 0 0.61
164.24986 -6.139375 682.0791 0 0.52
164.07903 -15.115755 682.92523 0 0.46
164.03343 -24.091824 683.12933 0 0.47
163.23701 -32.91152 687.1018 0 0.56
163.10172 -41.813507 687.7349 0 0.58
163.82106 -50.966557 684.054 0 0.49
163.69308 -59.888382 684.62836 0 0.45
164.12735 -69.03267 682.3611 0 0.48
163.32855 -77.638374 686.2939 0 0.6
163.47998 -86.660324 685.43176 0 0.62
163.51454 -95.6305 685.14954 0 0.62
163.48116 -104.561005 685.2013 0 0.62
163.38031 -113.44103 685.58563 0 0.62
163.21257 -122.25989 686.3004 0 0.61
169.32277 -136.10678 655.3633 0 0.5
176.35152 -151.41133 619.7795 0 0.41
177.01384 -161.6709 616.2824 0 0.4
177.36752 -171.70421 614.33746 0 0.4
177.4623 -181.51138 613.69586 0 0.4
177.72833 -191.51352 612.1889 0 0.39
178.21217 -201.7914 609.58264 0 0.39
178.24977 -211.59253 609.2297 0 0.38
178.50583 -221.66908 607.7768 0 0.38
178.60228 -231.56671 607.13416 0 0.39
178.8695 -241.70567 605.635 0 0.46
182.35121 -256.3936 587.9085 0 0.38
204.71327 -299.043 474.81433 0 0.44
203.13156 -307.85318 482.66724 0 0.52
202.88907 -318.59314 483.77063 0 0.54
203.14117 -330.11032 482.39246 0 0.53
201.62306 -338.6815 489.97968 0 0.52
199.0881 -345.32272 502.72876 0 0.34
0.0 0.0 0.0 0 0.32
0.0 0.0 0.0 0 0.35
0.0 0.0 0.0 0 0.34
0.0 0.0 0.0 0 0.33
0.0 0.0 0.0 0 0.32
0.0 0.0 0.0 0 0.3
0.0 0.0 0.0 0 0.29
0.0 0.0 0.0 0 0.28
0.0 0.0 0.0 0 0.26
142.24045 -324.591 790.8412 0 0.31
140.3883 -328.05023 800.4374 0 0.37
138.05984 -330.16748 812.4681 0 0.41
136.31494 -333.4574 821.58636 0 0.42
135.41013 -338.6573 826.50415 0 0.41
133.11357 -340.2011 838.47046 0 0.39
130.96121 -341.86996 849.74164 0 0.37
130.07666 -346.6821 854.66815 0 0.36
128.5929 -349.76764 862.64764 0 0.37
125.70149 -348.78488 877.73285 0 0.39
122.87291 -347.66324 892.5273 0 0.39
120.78857 -348.37845 903.6159 0 0.4
216.03009 586.6268 482.54602 0 0.41
216.21407 575.9038 480.60583 0 0.46
216.03436 564.2121 480.48096 0 0.47
215.85002 552.5272 480.46216 0 0.48
215.9798 541.6491 479.02576 0 0.48
215.60236 529.5119 480.0846 0 0.49
215.58476 518.27893 479.4994 0 0.49
215.23846 506.2746 480.55334 0 0.5
215.06857 494.712 480.83093 0 0.5
214.75113 482.83536 481.87683 0 0.5
212.7443 467.28094 491.06512 0 0.5
213.61787 458.11203 486.5299 0 0.5
214.72408 449.33926 480.93005 0 0.52
214.74417 438.23517 480.57727 0 0.53
214.65967 426.921 480.77148 0 0.53
214.70645 415.8698 480.38025 0 0.53
212.21576 400.03067 492.18555 0 0.51
208.45229 382.11688 510.12878 0 0.48
207.86633 370.25366 512.88257 0 0.48
